x	y	z	i
-2.5359597 	 -19.240381 	 2.5271676 	 0.9247031
-2.623007 	 -19.468956 	 2.5581696 	 0.9238155
-3.7836719 	 -22.650578 	 2.9904468 	 0.91152775
-3.8422203 	 -22.601465 	 2.9854045 	 0.91167
-4.1321115 	 -22.358345 	 2.9608264 	 0.9123644
-4.246739 	 -22.262232 	 2.951281 	 0.91263425
-4.360646 	 -22.16673 	 2.9418926 	 0.9128997
-4.417324 	 -22.119215 	 2.9372582 	 0.91303074
-4.586314 	 -21.977568 	 2.92359 	 0.91341746
-4.6423035 	 -21.930645 	 2.919107 	 0.91354424
-4.7537537 	 -21.837246 	 2.9102635 	 0.9137946
-4.809242 	 -21.790752 	 2.9058952 	 0.9139182
-4.864547 	 -21.744413 	 2.901566 	 0.91404074
-4.919692 	 -21.69821 	 2.8972766 	 0.9141623
-4.9746885 	 -21.65213 	 2.8930168 	 0.9142828
-5.0841746 	 -21.560417 	 2.8846185 	 0.91452074
-5.138696 	 -21.514748 	 2.880473 	 0.9146382
-5.193044 	 -21.469229 	 2.8763652 	 0.9147546
-5.247251 	 -21.423828 	 2.8722856 	 0.91487014
-5.3013067 	 -21.37856 	 2.8682501 	 0.9149846
-5.408944 	 -21.288425 	 2.8602784 	 0.91521055
-5.5693164 	 -21.154152 	 2.8485777 	 0.91554224
-5.6755133 	 -21.065254 	 2.8409514 	 0.9157586
-5.728391 	 -21.020992 	 2.8371904 	 0.9158653
-5.781145 	 -20.976841 	 2.8334594 	 0.91597116
-5.8337545 	 -20.93281 	 2.8297648 	 0.916076
-5.9385657 	 -20.845097 	 2.8224711 	 0.91628295
-6.0428405 	 -20.757847 	 2.8153143 	 0.9164862
-6.1982813 	 -20.627804 	 2.804815 	 0.9167843
-6.2498474 	 -20.58467 	 2.8013806 	 0.91688186
-6.403784 	 -20.45592 	 2.7912652 	 0.91716915
-6.4548545 	 -20.413212 	 2.7879558 	 0.9172632
-6.5057917 	 -20.370617 	 2.784679 	 0.9173563
-6.5566306 	 -20.328108 	 2.7814312 	 0.9174486
-6.657931 	 -20.243412 	 2.7750268 	 0.91763055
-6.859185 	 -20.07518 	 2.762589 	 0.91798425
-6.909226 	 -20.033356 	 2.7595532 	 0.91807055
-7.01668 	 -20.156935 	 2.7793415 	 0.917508
-7.357192 	 -20.562704 	 2.843927 	 0.91567427
-7.474256 	 -20.702202 	 2.8661742 	 0.91504335
-25.524868 	 -11.9327965 	 3.6691797 	 0.8925638
-22.118088 	 1.6388781 	 2.8881285 	 0.91442126
-21.57482 	 1.6609533 	 2.8178003 	 0.9164155
-19.707739 	 1.802262 	 2.5770671 	 0.9232749
-19.398779 	 1.8301989 	 2.53734 	 0.9244117
-19.12728 	 1.8600476 	 2.5025172 	 0.9254094
-18.863266 	 1.8890735 	 2.4686768 	 0.92638004
-18.606293 	 1.9173205 	 2.4357572 	 0.9273252
-18.37005 	 1.9463366 	 2.4055514 	 0.9281932
-18.153442 	 1.9761242 	 2.3779204 	 0.92898804
-17.941753 	 2.0052354 	 2.3509367 	 0.92976487
-17.734732 	 2.0337024 	 2.324564 	 0.93052465
-17.53401 	 2.06172 	 2.2990217 	 0.9312612
-17.361975 	 2.0920618 	 2.2772465 	 0.93188965
-17.193079 	 2.1218445 	 2.2558806 	 0.93250656
-16.864779 	 2.1797423 	 2.214405 	 0.9337052
-16.705042 	 2.2079113 	 2.194259 	 0.93428814
-16.428608 	 2.2674596 	 2.159626 	 0.93529105
-16.16776 	 2.3261876 	 2.1270566 	 0.93623513
-16.040285 	 2.354884 	 2.1111693 	 0.93669605
-15.577751 	 2.4701476 	 2.0538912 	 0.93835944
-15.161584 	 2.5830553 	 2.0028005 	 0.9398457
-14.96683 	 2.6384435 	 1.9790449 	 0.9405376
-14.876819 	 2.6666565 	 1.9681474 	 0.9408551
-14.612612 	 2.7494593 	 1.9362571 	 0.941785
-14.526421 	 2.7764757 	 1.9258842 	 0.94208765
-14.356809 	 2.8296301 	 1.9055228 	 0.9426821
-14.273313 	 2.8558018 	 1.8955199 	 0.94297415
-14.118587 	 2.9092834 	 1.8771604 	 0.9435106
-13.967526 	 2.9619005 	 1.8593088 	 0.9440325
-13.893078 	 2.9878333 	 1.8505315 	 0.94428915
-13.819299 	 3.0135362 	 1.8418486 	 0.9445431
-13.531056 	 3.1139417 	 1.8080815 	 0.94553167
-13.331081 	 3.1891222 	 1.784968 	 0.94620895
-13.265988 	 3.2138634 	 1.777479 	 0.9464284
-13.201427 	 3.2383995 	 1.7700678 	 0.94664574
-13.137414 	 3.2627282 	 1.7627354 	 0.9468608
-13.010952 	 3.3107872 	 1.748289 	 0.9472846
-12.948501 	 3.3345227 	 1.74118 	 0.94749326
-12.648843 	 3.4517932 	 1.7073737 	 0.948486
-12.592503 	 3.4753063 	 1.7011088 	 0.94867
-12.425908 	 3.544835 	 1.6826674 	 0.94921213
-12.371179 	 3.5676744 	 1.6766374 	 0.94938946
-12.316816 	 3.5903625 	 1.6706605 	 0.94956523
-12.209291 	 3.6352355 	 1.6588813 	 0.9499118
-12.050794 	 3.7013829 	 1.6416181 	 0.95041984
-11.948645 	 3.7452624 	 1.6306074 	 0.9507441
-11.900168 	 3.767638 	 1.625463 	 0.9508956
-11.851979 	 3.789879 	 1.6203597 	 0.95104593
-11.756548 	 3.8339317 	 1.6102977 	 0.9513424
-11.709255 	 3.8557653 	 1.60533 	 0.9514888
-11.615566 	 3.89901 	 1.5955287 	 0.9517777
-11.569133 	 3.920443 	 1.5906923 	 0.95192033
-11.522998 	 3.9417346 	 1.5859001 	 0.9520617
-11.47714 	 3.9629064 	 1.581146 	 0.95220184
-11.296374 	 4.046344 	 1.562548 	 0.9527506
-11.168227 	 4.1093664 	 1.549661 	 0.95313096
-11.127226 	 4.1305966 	 1.5456126 	 0.9532505
-10.96529 	 4.214459 	 1.5297456 	 0.9537192
-10.925324 	 4.235155 	 1.5258598 	 0.953834
-10.806638 	 4.2966175 	 1.5143956 	 0.9541727
-10.728494 	 4.337086 	 1.5069127 	 0.9543939
-10.612695 	 4.397052 	 1.495916 	 0.9547191
-10.465393 	 4.4775696 	 1.4823058 	 0.9551217
-10.429985 	 4.4979014 	 1.4791142 	 0.95521617
-10.394719 	 4.518158 	 1.4759474 	 0.9553098
-10.3596115 	 4.5383167 	 1.4728068 	 0.9554028
-10.32466 	 4.5583897 	 1.469694 	 0.95549494
-10.255178 	 4.5982924 	 1.4635389 	 0.9556771
-10.220652 	 4.6181164 	 1.4604982 	 0.9557671
-10.186264 	 4.637865 	 1.4574825 	 0.9558564
-10.152029 	 4.657521 	 1.4544911 	 0.95594496
-10.083969 	 4.6966076 	 1.4485819 	 0.95611995
-10.050141 	 4.7160316 	 1.4456651 	 0.95620644
-9.982905 	 4.754645 	 1.4398961 	 0.9563772
-9.94949 	 4.773834 	 1.4370484 	 0.9564616
-9.853835 	 4.832828 	 1.4291954 	 0.95669436
-9.822817 	 4.8526673 	 1.4267128 	 0.9567679
-9.761101 	 4.89214 	 1.4218065 	 0.9569133
-9.638935 	 4.970277 	 1.4122361 	 0.957197
-9.608643 	 4.989652 	 1.4098927 	 0.9572665
-9.578459 	 5.008961 	 1.40757 	 0.9573354
-9.518378 	 5.047389 	 1.4029762 	 0.9574716
-9.4586935 	 5.0855627 	 1.3984617 	 0.9576055
-9.369868 	 5.1423693 	 1.3918309 	 0.9578023
-9.340445 	 5.1611924 	 1.3896562 	 0.9578668
-9.312741 	 5.1808558 	 1.387744 	 0.95792353
-9.28564 	 5.200753 	 1.3859245 	 0.95797753
-9.23163 	 5.240404 	 1.3823353 	 0.95808405
-9.2047415 	 5.2601476 	 1.3805637 	 0.9581366
-9.15115 	 5.299491 	 1.3770686 	 0.95824033
-9.124457 	 5.319088 	 1.3753468 	 0.9582915
-9.071267 	 5.358138 	 1.371946 	 0.95839244
-9.04477 	 5.3775916 	 1.3702693 	 0.9584422
-8.965656 	 5.4356723 	 1.3653286 	 0.95858884
-8.887115 	 5.493336 	 1.3605268 	 0.9587315
-8.861062 	 5.5124645 	 1.3589549 	 0.95877814
-8.783242 	 5.569591 	 1.3543317 	 0.9589155
-8.686904 	 5.6494713 	 1.3493977 	 0.9590621
-8.6632 	 5.669537 	 1.3482393 	 0.9590965
-8.639544 	 5.689564 	 1.3470963 	 0.95913047
-8.615928 	 5.7095566 	 1.3459644 	 0.9591641
-8.592346 	 5.7295175 	 1.344845 	 0.9591973
-8.56881 	 5.7494445 	 1.3437407 	 0.9592301
-8.545307 	 5.769337 	 1.3426484 	 0.9592626
-8.45167 	 5.8486023 	 1.338409 	 0.9593886
-8.381833 	 5.907728 	 1.3353568 	 0.9594792
-8.312302 	 5.966588 	 1.332422 	 0.9595665
-8.26612 	 6.005685 	 1.3305244 	 0.9596228
-8.197145 	 6.064166 	 1.3277888 	 0.9597043
-8.153787 	 6.1048837 	 1.3264238 	 0.9597448
-8.132148 	 6.125206 	 1.3257606 	 0.95976454
-8.110519 	 6.1455164 	 1.3251076 	 0.959784
-8.088919 	 6.165802 	 1.3244663 	 0.95980304
-8.045781 	 6.2063146 	 1.323217 	 0.9598401
-8.024243 	 6.226539 	 1.322613 	 0.9598582
-7.9812155 	 6.266942 	 1.3214326 	 0.9598932
-7.959731 	 6.2871156 	 1.3208588 	 0.9599103
-7.938274 	 6.3072667 	 1.3202995 	 0.9599269
-7.8953905 	 6.3475327 	 1.3192106 	 0.95995927
-7.8739843 	 6.3676376 	 1.3186833 	 0.95997494
-7.7032666 	 6.527955 	 1.3148717 	 0.9600883
-7.6819944 	 6.547926 	 1.3144466 	 0.960101
-7.556743 	 6.6694007 	 1.3124888 	 0.9601592
-7.5163083 	 6.7109118 	 1.3121397 	 0.96016955
-7.4758787 	 6.7524085 	 1.3118348 	 0.9601787
-7.435476 	 6.793878 	 1.3115703 	 0.9601865
-7.415283 	 6.8146105 	 1.3114561 	 0.96018994
-7.3547144 	 6.8767834 	 1.3111744 	 0.9601983
-7.3345284 	 6.897501 	 1.311103 	 0.9602004
-7.2336326 	 7.0010753 	 1.3109077 	 0.9602062
-7.193271 	 7.0424986 	 1.310905 	 0.96020633
-7.173103 	 7.0632067 	 1.310919 	 0.9602059
-7.1529245 	 7.0839195 	 1.3109449 	 0.96020514
-7.1327415 	 7.104637 	 1.3109825 	 0.96020406
-7.1125607 	 7.12535 	 1.311028 	 0.96020263
-7.0923877 	 7.1460657 	 1.3110869 	 0.9602009
-7.0318284 	 7.208224 	 1.3113246 	 0.9601938
-7.0116305 	 7.2289586 	 1.3114271 	 0.9601908
-6.991438 	 7.249684 	 1.3115385 	 0.96018744
-6.934072 	 7.3153186 	 1.3125532 	 0.9601573
-6.858027 	 7.403624 	 1.3141727 	 0.96010906
-6.819929 	 7.447862 	 1.3150505 	 0.960083
-6.7817745 	 7.492164 	 1.3159724 	 0.9600556
-6.762678 	 7.5143323 	 1.3164482 	 0.96004146
-6.7435694 	 7.536527 	 1.3169373 	 0.9600269
-6.724446 	 7.5587316 	 1.3174373 	 0.960012
-6.705305 	 7.5809555 	 1.3179485 	 0.9599968
-6.6669846 	 7.62546 	 1.319004 	 0.9599654
-6.6478024 	 7.6477304 	 1.3195487 	 0.9599492
-6.6286035 	 7.6700253 	 1.3201054 	 0.9599327
-6.60938 	 7.6923423 	 1.3206737 	 0.9599158
-6.5709033 	 7.7370224 	 1.3218437 	 0.959881
-6.5516334 	 7.7594004 	 1.3224458 	 0.9598631
-6.532351 	 7.781793 	 1.323057 	 0.9598449
-6.4743824 	 7.8491025 	 1.3249669 	 0.95978814
-6.4356394 	 7.894093 	 1.3262986 	 0.95974857
-6.416245 	 7.916615 	 1.3269829 	 0.95972824
-6.3261666 	 8.0388 	 1.332094 	 0.95957625
-6.290554 	 8.088707 	 1.3343534 	 0.9595091
-6.2726855 	 8.113736 	 1.3355043 	 0.95947486
-6.236875 	 8.163907 	 1.3378444 	 0.95940536
-6.1467943 	 8.290128 	 1.3439143 	 0.95922476
-6.074121 	 8.391956 	 1.3490248 	 0.95907307
-6.0558667 	 8.41753 	 1.3503368 	 0.9590342
-6.0375757 	 8.443155 	 1.3516622 	 0.95899487
-6.0192456 	 8.468839 	 1.3529905 	 0.95895517
-6.000881 	 8.494564 	 1.3543473 	 0.958915
-5.964045 	 8.546183 	 1.3570927 	 0.9588335
-5.945574 	 8.572066 	 1.3584874 	 0.9587921
-5.927063 	 8.598004 	 1.3598884 	 0.9587503
-5.9085007 	 8.624 	 1.3613179 	 0.9587081
-5.8909764 	 8.6516075 	 1.362993 	 0.9586582
-5.8588157 	 8.711532 	 1.3671104 	 0.95853597
-5.842661 	 8.741627 	 1.3691953 	 0.9584741
-5.793911 	 8.832481 	 1.3755534 	 0.95828533
-5.7611523 	 8.893526 	 1.3798833 	 0.95815676
-5.7281885 	 8.954947 	 1.3842866 	 0.9580262
-5.6950192 	 9.016776 	 1.388763 	 0.95789325
-5.678347 	 9.047833 	 1.3910298 	 0.957826
-5.6111107 	 9.173131 	 1.400287 	 0.9575514
-5.56009 	 9.268209 	 1.4074336 	 0.9573394
-5.542971 	 9.300111 	 1.4098579 	 0.95726764
-5.4806614 	 9.440518 	 1.4215028 	 0.95692235
-5.436206 	 9.552584 	 1.4312687 	 0.95663285
-5.42125 	 9.590289 	 1.4345793 	 0.9565348
-5.375972 	 9.704439 	 1.4446714 	 0.9562358
-5.3454294 	 9.781434 	 1.45154 	 0.9560324
-5.3145895 	 9.85918 	 1.4585212 	 0.9558257
-5.29906 	 9.898334 	 1.4620546 	 0.955721
-5.2834473 	 9.937681 	 1.4656205 	 0.9556155
-5.2677636 	 9.977216 	 1.4692116 	 0.9555092
-5.2362475 	 10.057037 	 1.4765129 	 0.9552931
-5.1521387 	 10.326124 	 1.502758 	 0.95451677
-5.1234274 	 10.417977 	 1.5118157 	 0.95424896
-5.10895 	 10.464303 	 1.5164055 	 0.95411336
-5.064951 	 10.60504 	 1.5304146 	 0.95369935
-5.0501146 	 10.6525135 	 1.5351692 	 0.953559
-5.035176 	 10.700314 	 1.539966 	 0.9534173
-5.020144 	 10.748392 	 1.5448036 	 0.9532744
-5.0055566 	 10.797931 	 1.5498539 	 0.95312536
-4.9912133 	 10.84857 	 1.555056 	 0.95297176
-4.9767723 	 10.899528 	 1.5603046 	 0.95281684
-4.9476123 	 11.002496 	 1.5709513 	 0.95250267
-4.9180417 	 11.106869 	 1.58179 	 0.9521828
-4.8268213 	 11.428903 	 1.6155751 	 0.95118713
-4.8112326 	 11.483939 	 1.6214104 	 0.95101565
-4.7818236 	 11.600257 	 1.633904 	 0.950647
-4.767058 	 11.659383 	 1.6402961 	 0.95045877
-4.7521753 	 11.718953 	 1.6467506 	 0.9502688
-4.737178 	 11.7789955 	 1.653268 	 0.95007694
-4.706814 	 11.900548 	 1.6665068 	 0.9496874
-4.6914597 	 11.962037 	 1.6732243 	 0.94948983
-4.6603513 	 12.086554 	 1.686869 	 0.94908863
-4.644612 	 12.149571 	 1.6937922 	 0.948885
-4.612739 	 12.277184 	 1.707863 	 0.9484716
-4.597827 	 12.345075 	 1.7154624 	 0.9482483
-4.524907 	 12.704203 	 1.7561545 	 0.9470538
-4.509905 	 12.778077 	 1.7645686 	 0.946807
-4.494763 	 12.852684 	 1.7730818 	 0.9465574
-4.479465 	 12.927994 	 1.7816893 	 0.94630504
-4.4329395 	 13.159185 	 1.8082197 	 0.9455277
-4.4027195 	 13.321964 	 1.8270808 	 0.9449754
-4.3873777 	 13.404615 	 1.83668 	 0.94469446
-4.3718677 	 13.488151 	 1.8463978 	 0.9444101
-4.356189 	 13.572598 	 1.8562382 	 0.9441223
-4.340344 	 13.65793 	 1.8661964 	 0.94383115
-4.324336 	 13.744173 	 1.876276 	 0.9435365
-4.3081493 	 13.831383 	 1.8864833 	 0.9432382
-4.291782 	 13.919532 	 1.8968157 	 0.9429363
-4.2750535 	 14.008023 	 1.9071944 	 0.9426332
-4.257849 	 14.0966 	 1.9175792 	 0.94233
-4.240471 	 14.186114 	 1.9280925 	 0.9420232
-4.205115 	 14.368151 	 1.9495115 	 0.9413982
-4.150591 	 14.648924 	 1.982689 	 0.9404314
-4.064133 	 14.998699 	 2.0235777 	 0.9392411
-4.044824 	 15.099152 	 2.0355568 	 0.9388927
-4.00553 	 15.303612 	 2.0599816 	 0.93818253
-3.98552 	 15.40773 	 2.072446 	 0.9378203
-3.9652684 	 15.513089 	 2.0850797 	 0.93745345
-3.9240184 	 15.727731 	 2.1108632 	 0.936705
-3.8601854 	 16.059845 	 2.1508949 	 0.93554425
-3.771211 	 16.52279 	 2.2069461 	 0.9339212
-3.7482371 	 16.642313 	 2.221466 	 0.93350136
-3.7013621 	 16.886198 	 2.251143 	 0.93264353
-3.677461 	 17.010582 	 2.2663083 	 0.9322055
-3.6037548 	 17.39405 	 2.3131745 	 0.9308532
-3.552905 	 17.658651 	 2.3455853 	 0.9299184
-3.5267577 	 17.792809 	 2.3620722 	 0.92944425
-3.418662 	 18.350542 	 2.4307392 	 0.9274694
-3.390659 	 18.495054 	 2.4485812 	 0.92695695
-3.3622363 	 18.641705 	 2.4667094 	 0.9264366
-3.3040967 	 18.94169 	 2.5038483 	 0.92537135
-3.2135253 	 19.408983 	 2.5618646 	 0.92370987
-3.1824024 	 19.569592 	 2.5818458 	 0.92313826
-3.1507764 	 19.732779 	 2.6021717 	 0.92255723
-3.0528612 	 20.238018 	 2.6652281 	 0.920757
-3.0191553 	 20.411907 	 2.6870043 	 0.9201369
-2.9849024 	 20.588652 	 2.7091205 	 0.9195065
-2.9500682 	 20.768402 	 2.7316356 	 0.9188651
-2.914834 	 20.952362 	 2.7547107 	 0.9182083
-2.8788233 	 21.138174 	 2.7780445 	 0.91754496
-2.8421874 	 21.327217 	 2.8018005 	 0.9168699
-2.6492138 	 22.3229 	 2.9273088 	 0.9133123
-2.524868 	 22.964437 	 3.0084686 	 0.911019
-2.4818652 	 23.186298 	 3.0365868 	 0.9102258
-2.4380713 	 23.412289 	 3.0652924 	 0.9094179
-2.3934326 	 23.642588 	 3.0944707 	 0.9085946
-2.3498192 	 23.896719 	 3.1268616 	 0.90768415
-2.0577734 	 25.417133 	 3.3206713 	 0.9022511
-2.005537 	 25.689072 	 3.355434 	 0.9012801
-1.89771 	 26.25041 	 3.427276 	 0.8992767
-1.7292529 	 27.174335 	 3.5458214 	 0.89598036
-1.6696875 	 27.483421 	 3.5855126 	 0.89487946
-1.4826807 	 28.45374 	 3.710297 	 0.8914271
-1.4173876 	 28.792503 	 3.7539227 	 0.8902232
10.795185 	 25.612064 	 3.6193738 	 0.8939413
11.0541115 	 25.607573 	 3.6320653 	 0.8935899
10.752412 	 24.52057 	 3.486593 	 0.8976257
11.354389 	 25.298368 	 3.6109705 	 0.89417404
11.202773 	 24.581537 	 3.51778 	 0.896759
11.527109 	 24.913012 	 3.5746386 	 0.89518106
11.690522 	 24.705347 	 3.5591607 	 0.8956103
11.962236 	 24.908407 	 3.5982518 	 0.8945263
11.898535 	 24.594507 	 3.5578296 	 0.89564717
12.20977 	 25.053999 	 3.6293597 	 0.89366484
12.338061 	 24.95228 	 3.6248302 	 0.89379025
12.392544 	 24.88228 	 3.619818 	 0.893929
12.446875 	 24.812525 	 3.6148558 	 0.8940664
12.50106 	 24.742968 	 3.60994 	 0.8942026
12.555117 	 24.673628 	 3.605069 	 0.89433753
12.60912 	 24.604652 	 3.6002715 	 0.8944705
12.882392 	 24.613028 	 3.617603 	 0.89399034
12.947793 	 24.060982 	 3.5580957 	 0.8956398
12.949941 	 23.900229 	 3.539804 	 0.89614725
7.677607 	 7.314195 	 1.3808522 	 0.9581281
7.678481 	 7.2730746 	 1.3773143 	 0.9582351
9.562489 	 -23.056581 	 2.680346 	 0.9044596
9.352615 	 -22.73487 	 2.639814 	 0.9058341
9.1490345 	 -22.422804 	 2.6005127 	 0.9071687
8.658929 	 -21.755722 	 2.514401 	 0.9101001
8.599264 	 -21.787764 	 2.5152402 	 0.9100715
8.479827 	 -21.851906 	 2.5169814 	 0.9100122
8.360213 	 -21.91614 	 2.518804 	 0.90994996
8.180454 	 -22.012678 	 2.5217052 	 0.90985113
8.060394 	 -22.077152 	 2.5237446 	 0.9097816
7.995797 	 -22.097038 	 2.5233839 	 0.9097939
7.863444 	 -22.127754 	 2.521689 	 0.9098517
7.7973423 	 -22.143095 	 2.5208783 	 0.9098794
7.5992627 	 -22.189064 	 2.5185597 	 0.9099583
7.5333176 	 -22.20437 	 2.51783 	 0.90998316
7.4015284 	 -22.234955 	 2.516439 	 0.9100307
7.2651258 	 -22.250917 	 2.5134795 	 0.91013163
7.1222363 	 -22.2456 	 2.5082133 	 0.9103111
7.051021 	 -22.24295 	 2.5056245 	 0.9103995
6.767578 	 -22.232407 	 2.4955084 	 0.9107445
6.626701 	 -22.227165 	 2.4906092 	 0.9109118
6.573905 	 -22.283642 	 2.4948049 	 0.9107684
6.552679 	 -22.449106 	 2.5112157 	 0.9102087
6.509381 	 -22.786623 	 2.5447469 	 0.909066
6.487295 	 -22.958769 	 2.5618787 	 0.9084827
6.4192104 	 -23.489496 	 2.614831 	 0.9066822
6.395885 	 -23.67133 	 2.6330168 	 0.9060647
6.372238 	 -23.85567 	 2.6514745 	 0.90543836
6.3482494 	 -24.042656 	 2.6702209 	 0.9048027
6.299245 	 -24.424665 	 2.7085834 	 0.90350324
6.2488103 	 -24.817806 	 2.7481573 	 0.90216476
6.1968775 	 -25.22264 	 2.7889948 	 0.90078545
5.3574333 	 -25.95216 	 2.845548 	 0.898879
5.275988 	 -25.933586 	 2.8418388 	 0.8990039
5.113701 	 -25.896576 	 2.8345165 	 0.89925057
5.032889 	 -25.878136 	 2.8309038 	 0.8993723
4.952254 	 -25.859741 	 2.8273222 	 0.8994929
4.7116046 	 -25.80484 	 2.8167768 	 0.89984834
4.314423 	 -25.714233 	 2.7998369 	 0.9004197
4.2355638 	 -25.696245 	 2.7965393 	 0.9005309
4.0783873 	 -25.66039 	 2.7900403 	 0.90075016
3.9219224 	 -25.624702 	 2.7836652 	 0.90096533
3.7661607 	 -25.589174 	 2.7774107 	 0.9011765
3.611118 	 -25.553812 	 2.7712731 	 0.9013837
3.5338397 	 -25.536186 	 2.7682512 	 0.9014858
3.4567273 	 -25.518599 	 2.7652576 	 0.90158695
3.3797967 	 -25.501055 	 2.7622888 	 0.9016871
3.3030298 	 -25.48355 	 2.7593591 	 0.9017862
3.226399 	 -25.466068 	 2.756449 	 0.9018845
2.9215453 	 -25.39655 	 2.745111 	 0.9022677
2.7700477 	 -25.362001 	 2.7396104 	 0.9024536
2.5458355 	 -25.329458 	 2.7336254 	 0.902656
2.463631 	 -26.012499 	 2.8057714 	 0.9002197
2.420891 	 -26.367868 	 2.843335 	 0.8989535
2.3769305 	 -26.732212 	 2.8818743 	 0.89765644
2.2853675 	 -27.49164 	 2.9622784 	 0.8949564
1.4603897 	 -18.200756 	 1.9607097 	 0.9291762
1.3534374 	 -18.17697 	 1.9572755 	 0.9292957
1.3001001 	 -18.165108 	 1.9555888 	 0.9293544
0.981958 	 -18.09436 	 1.9458616 	 0.9296932
0.92923874 	 -18.082636 	 1.9443046 	 0.9297474
0.87660414 	 -18.070934 	 1.9427699 	 0.9298009
0.7191836 	 -18.035933 	 1.9382664 	 0.92995775
0.6668682 	 -18.024302 	 1.9368033 	 0.9300087
0.6146402 	 -18.01269 	 1.9353572 	 0.9300591
0.5104109 	 -17.98952 	 1.9325224 	 0.93015796
0.45839936 	 -17.977957 	 1.9311314 	 0.9302064
0.40647507 	 -17.966413 	 1.9297565 	 0.9302543
0.25112456 	 -17.93188 	 1.9257429 	 0.9303942
0.19947906 	 -17.9204 	 1.9244404 	 0.93043953
0.14790711 	 -17.90894 	 1.9231559 	 0.93048435
0.09639908 	 -17.89749 	 1.9218892 	 0.9305285
0.04497177 	 -17.886059 	 1.9206386 	 0.93057203
-0.10894653 	 -17.851852 	 1.9169987 	 0.9306991
-0.21124466 	 -17.829119 	 1.914654 	 0.93078077
-0.3132849 	 -17.806444 	 1.9123814 	 0.93086004
-0.36421752 	 -17.795126 	 1.9112697 	 0.9308988
-0.41509444 	 -17.783821 	 1.9101768 	 0.93093693
-0.46591094 	 -17.77253 	 1.9090996 	 0.93097454
-0.66861284 	 -17.727491 	 1.9049608 	 0.93111885
-0.82008296 	 -17.693842 	 1.9020329 	 0.931221
-0.92081237 	 -17.671465 	 1.9001673 	 0.93128616
-1.021341 	 -17.649134 	 1.8983629 	 0.93134904
-1.2718664 	 -17.593489 	 1.8941474 	 0.93149614
-1.4715161 	 -17.549147 	 1.8910698 	 0.93160355
-1.5379376 	 -17.729536 	 1.910976 	 0.93090904
-1.6066183 	 -17.923113 	 1.9323283 	 0.93016464
-1.6768185 	 -18.12092 	 1.9541658 	 0.92940396
-1.7486371 	 -18.32323 	 1.9765186 	 0.928626
-1.822106 	 -18.530151 	 1.9993949 	 0.92783046
-1.8973025 	 -18.741884 	 2.0228212 	 0.9270165
-2.053057 	 -19.180311 	 2.0713766 	 0.92533165
-2.133775 	 -19.407446 	 2.0965583 	 0.92445904
-3.803578 	 -22.570244 	 2.4578052 	 0.9120319
-3.861903 	 -22.521425 	 2.453685 	 0.9121726
-4.0933013 	 -22.327778 	 2.4375496 	 0.9127242
-4.1506786 	 -22.279764 	 2.4336 	 0.91285926
-4.207871 	 -22.23191 	 2.4296827 	 0.91299325
-4.32171 	 -22.136667 	 2.421948 	 0.9132579
-4.3783655 	 -22.089272 	 2.4181273 	 0.91338855
-4.4348373 	 -22.04203 	 2.414342 	 0.9135182
-4.6032114 	 -21.901192 	 2.4031703 	 0.91390055
-4.6589866 	 -21.854544 	 2.3995128 	 0.9140259
-4.714598 	 -21.808031 	 2.3958836 	 0.9141502
-4.7700424 	 -21.761665 	 2.3922813 	 0.91427344
-4.990182 	 -21.577589 	 2.3781924 	 0.9147562
-5.0448155 	 -21.531914 	 2.3747456 	 0.9148743
-5.1536207 	 -21.440948 	 2.3679392 	 0.9151076
-5.207788 	 -21.395668 	 2.36458 	 0.91522276
-5.3156652 	 -21.305498 	 2.357952 	 0.91545016
-5.4229493 	 -21.21583 	 2.351435 	 0.9156736
-5.582767 	 -21.082275 	 2.3418787 	 0.9160015
-5.635764 	 -21.037992 	 2.338751 	 0.91610897
-5.688613 	 -20.993832 	 2.3356454 	 0.9162154
-5.741314 	 -20.949802 	 2.3325715 	 0.916321
-5.8463316 	 -20.862068 	 2.326509 	 0.91652924
-6.054741 	 -20.687983 	 2.3146994 	 0.9169348
-6.1581645 	 -20.601606 	 2.3089533 	 0.91713214
-6.2096863 	 -20.55858 	 2.3061213 	 0.9172295
-6.261081 	 -20.515663 	 2.3033164 	 0.917326
-6.3123536 	 -20.47285 	 2.3005345 	 0.9174215
-6.414532 	 -20.387539 	 2.2950494 	 0.91761
-6.7182226 	 -20.134027 	 2.279209 	 0.9181548
-6.768441 	 -20.092115 	 2.2766533 	 0.9182426
-6.8185368 	 -20.05031 	 2.2741249 	 0.91832954
-6.8685336 	 -20.008587 	 2.2716243 	 0.91841567
-7.085774 	 -20.261646 	 2.304938 	 0.9172701
-7.1987066 	 -20.396397 	 2.3226078 	 0.91666305
-7.313416 	 -20.53326 	 2.3405778 	 0.9160462
-7.7904997 	 -21.102488 	 2.4155083 	 0.9134783
-7.914598 	 -21.250553 	 2.4350467 	 0.9128098
-8.1689 	 -21.553965 	 2.475151 	 0.91143936
-8.431701 	 -21.86751 	 2.5166795 	 0.9100225
-8.703526 	 -22.191816 	 2.559714 	 0.9085564
-8.984777 	 -22.527372 	 2.6043255 	 0.90703905
-25.533472 	 -11.892183 	 3.0246215 	 0.8928686
-25.662384 	 -11.86264 	 3.035843 	 0.89249325
-20.553284 	 1.7308581 	 2.2148778 	 0.920371
-20.198494 	 1.7594202 	 2.17716 	 0.92167175
-19.872305 	 1.7885388 	 2.142544 	 0.9228678
-19.556377 	 1.8167443 	 2.109038 	 0.924027
-19.26668 	 1.8456652 	 2.078359 	 0.92508966
-18.484564 	 1.9316125 	 1.9957126 	 0.92795855
-18.264809 	 1.9617053 	 1.9725852 	 0.92876285
-18.050566 	 1.9911584 	 1.950056 	 0.9295471
-17.841166 	 2.0199425 	 1.9280528 	 0.93031365
-16.948462 	 2.1658216 	 1.8347511 	 0.9335712
-16.631813 	 2.222533 	 1.8018281 	 0.9347235
-15.979341 	 2.3693957 	 1.7346507 	 0.937079
-15.526374 	 2.4848523 	 1.6884636 	 0.9387018
-15.21419 	 2.5695374 	 1.6568605 	 0.9398139
-15.01375 	 2.6244836 	 1.636648 	 0.9405259
-14.657504 	 2.7361193 	 1.6011354 	 0.94177806
-14.570847 	 2.7632728 	 1.5925304 	 0.94208175
-14.485117 	 2.7901404 	 1.5840263 	 0.9423818
-14.3163595 	 2.8430235 	 1.567335 	 0.9429714
-14.081811 	 2.922799 	 1.544355 	 0.9437835
-13.9314575 	 2.9751673 	 1.5297166 	 0.9443013
-13.857339 	 3.0009801 	 1.5225178 	 0.944556
-13.7839155 	 3.0265539 	 1.5153993 	 0.94480795
-13.170432 	 3.2508435 	 1.456706 	 0.94688773
-13.04343 	 3.2991028 	 1.4447334 	 0.9473126
-12.980696 	 3.3229406 	 1.4388337 	 0.9475219
-12.918484 	 3.3465807 	 1.4329991 	 0.9477291
-12.856777 	 3.3700304 	 1.4272233 	 0.94793427
-12.735095 	 3.4164417 	 1.4158696 	 0.94833755
-12.678115 	 3.4402184 	 1.4106284 	 0.9485238
-12.621552 	 3.4638243 	 1.4054353 	 0.9487083
-12.56541 	 3.4872522 	 1.4002919 	 0.9488911
-12.344844 	 3.579298 	 1.3802055 	 0.94960546
-12.290684 	 3.6018982 	 1.375302 	 0.94978
-12.236909 	 3.6243372 	 1.3704426 	 0.94995284
-12.183513 	 3.6466174 	 1.3656318 	 0.95012414
-12.077834 	 3.690719 	 1.3561375 	 0.95046204
-11.973799 	 3.7342687 	 1.3468446 	 0.9507931
-11.9251585 	 3.7567174 	 1.3425804 	 0.95094496
-11.876826 	 3.7790222 	 1.3383567 	 0.9510955
-11.73363 	 3.8451183 	 1.3259044 	 0.9515393
-11.686491 	 3.8668737 	 1.3218263 	 0.95168465
-11.274799 	 4.0568857 	 1.2866971 	 0.952938
-11.230818 	 4.077535 	 1.283008 	 0.9530697
-11.189482 	 4.098939 	 1.279626 	 0.9531905
-10.986001 	 4.2043076 	 1.2631334 	 0.9537797
-10.906059 	 4.2457066 	 1.2567232 	 0.9540087
-10.866391 	 4.2662463 	 1.25356 	 0.9541218
-10.826923 	 4.286683 	 1.2504219 	 0.95423394
-10.787654 	 4.307018 	 1.247313 	 0.9543452
-10.748576 	 4.327252 	 1.2442284 	 0.95445555
-10.709697 	 4.3473887 	 1.2411629 	 0.954565
-10.6710005 	 4.3674254 	 1.2381309 	 0.9546736
-10.632498 	 4.3873644 	 1.2351152 	 0.95478123
-10.377703 	 4.528485 	 1.2158521 	 0.9554706
-10.342664 	 4.5486045 	 1.2132728 	 0.955563
-10.2039795 	 4.628241 	 1.2031617 	 0.955925
-10.16967 	 4.6479406 	 1.2006862 	 0.9560137
-10.1355 	 4.667562 	 1.1982292 	 0.95610166
-10.101464 	 4.6871104 	 1.1957909 	 0.956189
-10.033813 	 4.725953 	 1.1909776 	 0.9563614
-10.00019 	 4.745262 	 1.1885991 	 0.95644665
-9.966697 	 4.7644935 	 1.1862403 	 0.95653117
-9.933345 	 4.7836485 	 1.1839006 	 0.95661503
-9.838784 	 4.842994 	 1.177563 	 0.95684224
-9.807817 	 4.8627963 	 1.1755241 	 0.9569154
-9.776962 	 4.882533 	 1.1735008 	 0.95698786
-9.746211 	 4.9021983 	 1.1714948 	 0.9570598
-9.715567 	 4.9217978 	 1.1695051 	 0.9571311
-9.685017 	 4.941339 	 1.1675316 	 0.9572019
-9.654577 	 4.960807 	 1.1655754 	 0.95727205
-9.624238 	 4.980206 	 1.1636348 	 0.9573417
-9.593996 	 4.999552 	 1.16171 	 0.9574107
-9.53382 	 5.0380383 	 1.1579084 	 0.95754707
-9.503872 	 5.0571933 	 1.1560292 	 0.9576144
-9.474021 	 5.0762854 	 1.1541679 	 0.95768124
-9.444275 	 5.095309 	 1.1523235 	 0.95774746
-9.414621 	 5.1142783 	 1.150493 	 0.95781314
-9.385054 	 5.1331797 	 1.1486775 	 0.9578783
-9.355583 	 5.1520324 	 1.1468754 	 0.9579429
-9.29959 	 5.191034 	 1.1436485 	 0.9580588
-9.111524 	 5.3291025 	 1.1334705 	 0.95842415
-9.084929 	 5.3486266 	 1.132068 	 0.9584745
-9.005532 	 5.406915 	 1.1279386 	 0.9586228
-8.979194 	 5.426251 	 1.1265868 	 0.95867133
-8.95292 	 5.445538 	 1.1252474 	 0.95871943
-8.926709 	 5.4647813 	 1.1239198 	 0.95876706
-8.848434 	 5.5222397 	 1.1200166 	 0.95890737
-8.822461 	 5.54131 	 1.1187385 	 0.95895326
-8.79655 	 5.560331 	 1.1174748 	 0.9589987
-8.770696 	 5.57931 	 1.1162208 	 0.95904374
-8.699109 	 5.6396494 	 1.113253 	 0.9591503
-8.60447 	 5.719762 	 1.1094792 	 0.959286
-8.533904 	 5.7795005 	 1.1067616 	 0.95938367
-8.487051 	 5.819166 	 1.104997 	 0.9594469
-8.463679 	 5.838951 	 1.1041322 	 0.95947796
-8.440344 	 5.858702 	 1.1032875 	 0.95950866
-8.393784 	 5.898116 	 1.10161 	 0.95956886
-8.370554 	 5.9177794 	 1.1007774 	 0.9595984
-8.324197 	 5.9570227 	 1.0991695 	 0.9596565
-8.3010645 	 5.9766 	 1.0983809 	 0.95968497
-8.254914 	 6.01567 	 1.0968336 	 0.95974076
-8.231879 	 6.035167 	 1.096063 	 0.9597681
-8.208884 	 6.0546374 	 1.0953141 	 0.9597951
-8.164917 	 6.094938 	 1.0941026 	 0.95983875
-8.143264 	 6.1152697 	 1.09355 	 0.9598586
-8.121628 	 6.135587 	 1.0930067 	 0.95987815
-8.013774 	 6.2368712 	 1.0904344 	 0.95997065
-7.949287 	 6.297423 	 1.0890046 	 0.96002215
-7.9278345 	 6.3175693 	 1.0885453 	 0.9600386
-7.863567 	 6.377921 	 1.0872285 	 0.960086
-7.8421826 	 6.398004 	 1.0868068 	 0.9601011
-7.8208103 	 6.4180675 	 1.0863966 	 0.9601159
-7.7781177 	 6.458165 	 1.0856013 	 0.9601445
-7.735481 	 6.498197 	 1.0848423 	 0.9601718
-7.714192 	 6.518192 	 1.0844767 	 0.96018493
-7.6716356 	 6.5581503 	 1.0837746 	 0.9602102
-7.6079125 	 6.6179843 	 1.0827882 	 0.9602457
-7.5873485 	 6.638478 	 1.0825719 	 0.96025354
-7.5671167 	 6.659244 	 1.0824097 	 0.9602594
-7.5468917 	 6.680011 	 1.0822551 	 0.96026486
-7.5064526 	 6.7215195 	 1.081978 	 0.9602749
-7.44584 	 6.7837462 	 1.0816252 	 0.9602875
-7.385254 	 6.845934 	 1.0813524 	 0.9602973
-7.3448777 	 6.887374 	 1.0812181 	 0.96030223
-7.32469 	 6.908097 	 1.0811626 	 0.9603042
-7.2641525 	 6.9702454 	 1.0810517 	 0.96030813
-7.243972 	 6.990958 	 1.0810323 	 0.96030885
-7.223794 	 7.0116663 	 1.0810231 	 0.9603092
-7.1834397 	 7.053097 	 1.0810304 	 0.96030897
-7.163264 	 7.0738096 	 1.0810466 	 0.9603084
-7.1430836 	 7.0945225 	 1.0810719 	 0.9603075
-7.122903 	 7.1152353 	 1.081107 	 0.9603062
-7.10272 	 7.1359506 	 1.0811503 	 0.9603047
-7.0825367 	 7.156671 	 1.0812029 	 0.96030277
-7.062353 	 7.177391 	 1.0812639 	 0.96030056
-7.042163 	 7.1981115 	 1.081332 	 0.96029806
-7.0219703 	 7.218839 	 1.0814128 	 0.9602952
-7.0017796 	 7.239564 	 1.0815016 	 0.96029204
-6.962771 	 7.2824864 	 1.08192 	 0.96027696
-6.9058056 	 7.348644 	 1.0828667 	 0.96024287
-6.8867917 	 7.3707237 	 1.0831999 	 0.9602309
-6.8296776 	 7.437037 	 1.0842586 	 0.96019286
-6.8106127 	 7.459176 	 1.0846275 	 0.9601795
-6.79154 	 7.481322 	 1.0850084 	 0.96016586
-6.715095 	 7.570089 	 1.0866203 	 0.9601079
-6.695952 	 7.5923204 	 1.0870464 	 0.96009254
-6.6192136 	 7.681427 	 1.088845 	 0.96002793
-6.5999875 	 7.703756 	 1.0893165 	 0.9600109
-6.522915 	 7.793253 	 1.091302 	 0.9599395
-6.5035987 	 7.8156824 	 1.091822 	 0.95992076
-6.484265 	 7.838131 	 1.0923522 	 0.95990175
-6.4649167 	 7.8606014 	 1.0928911 	 0.9598823
-6.4455442 	 7.883092 	 1.0934407 	 0.9598626
-6.38842 	 7.9520764 	 1.0953319 	 0.9597946
-6.3707275 	 7.976871 	 1.096223 	 0.9597625
-6.281809 	 8.101456 	 1.1008306 	 0.9595969
-6.2639403 	 8.1265 	 1.101786 	 0.95956254
-6.156028 	 8.277701 	 1.107732 	 0.9593487
-6.1379223 	 8.303067 	 1.108762 	 0.95931166
-6.0834203 	 8.379435 	 1.1119227 	 0.95919824
-6.0651855 	 8.404986 	 1.1129915 	 0.9591596
-6.0469117 	 8.43059 	 1.1140828 	 0.9591206
-6.0285983 	 8.456246 	 1.115178 	 0.9590812
-6.010254 	 8.481949 	 1.1162922 	 0.95904136
-5.9179664 	 8.611254 	 1.1220033 	 0.958836
-5.8993993 	 8.637277 	 1.1231749 	 0.9587937
-5.8831124 	 8.666779 	 1.1248158 	 0.958735
-5.8509007 	 8.726793 	 1.1282234 	 0.95861256
-5.8347263 	 8.756945 	 1.1299495 	 0.9585506
-5.818501 	 8.787181 	 1.1316911 	 0.95848805
-5.785896 	 8.847943 	 1.1352159 	 0.95836145
-5.769519 	 8.878463 	 1.137 	 0.9582974
-5.6868405 	 9.032536 	 1.1461549 	 0.95796883
-5.670144 	 9.063648 	 1.1480315 	 0.9579015
-5.6365867 	 9.126192 	 1.151833 	 0.95776504
-5.6197166 	 9.157623 	 1.153759 	 0.95769596
-5.534541 	 9.316359 	 1.1636211 	 0.95734215
-5.5027857 	 9.385284 	 1.1682625 	 0.9571757
-5.4881396 	 9.422215 	 1.1708921 	 0.9570814
-5.4734254 	 9.459312 	 1.1735444 	 0.9569863
-5.4437866 	 9.534024 	 1.1789153 	 0.9567938
-5.428872 	 9.571637 	 1.1816316 	 0.9566964
-5.413884 	 9.609425 	 1.1843721 	 0.95659816
-5.3988233 	 9.647388 	 1.1871343 	 0.95649916
-5.3836913 	 9.685529 	 1.1899204 	 0.9563993
-5.337876 	 9.801036 	 1.1984162 	 0.956095
-5.3224583 	 9.839903 	 1.2012944 	 0.9559919
-5.306963 	 9.878965 	 1.2041972 	 0.9558879
-5.260027 	 9.997291 	 1.213051 	 0.95557094
-5.229465 	 10.079312 	 1.219337 	 0.9553459
-5.2016773 	 10.168219 	 1.2264568 	 0.9550911
-5.1451073 	 10.349205 	 1.2410743 	 0.9545682
-5.1307545 	 10.3951235 	 1.2448084 	 0.9544347
-5.1163135 	 10.441324 	 1.2485783 	 0.9542999
-5.0724583 	 10.581627 	 1.2600795 	 0.9538888
-5.0576587 	 10.628976 	 1.263983 	 0.9537493
-5.0277805 	 10.724549 	 1.2718928 	 0.9534667
-4.955046 	 10.976844 	 1.2932404 	 0.9527044
-4.940364 	 11.028683 	 1.2976695 	 0.9525463
-4.925576 	 11.08088 	 1.3021327 	 0.9523868
-4.910691 	 11.133438 	 1.306648 	 0.95222574
-4.8806105 	 11.239644 	 1.3158009 	 0.9518993
-4.8500953 	 11.34736 	 1.3251393 	 0.95156676
-4.78926 	 11.571119 	 1.3447499 	 0.9508677
-4.7597313 	 11.689346 	 1.3552918 	 0.9504923
-4.7297316 	 11.809452 	 1.3660426 	 0.9501095
-4.714553 	 11.870226 	 1.3715007 	 0.94991523
-4.699248 	 11.93149 	 1.3770133 	 0.9497191
-4.6525974 	 12.1182575 	 1.3938905 	 0.94911873
-4.561885 	 12.522784 	 1.431165 	 0.9477943
-4.532441 	 12.667768 	 1.4447334 	 0.9473126
-4.502444 	 12.815538 	 1.458613 	 0.94682014
-4.487224 	 12.890504 	 1.4656721 	 0.94656974
-4.4718604 	 12.966178 	 1.4728127 	 0.94631666
-4.395159 	 13.363439 	 1.5106074 	 0.9449775
-4.3483787 	 13.615411 	 1.5347981 	 0.94412154
-4.300073 	 13.875611 	 1.559894 	 0.94323426
-4.2665696 	 14.052482 	 1.5769978 	 0.9426301
-4.2141232 	 14.322555 	 1.6031687 	 0.94170624
-4.1962476 	 14.414586 	 1.6121559 	 0.9413907
-4.1781764 	 14.507652 	 1.62119 	 0.9410712
-4.1598973 	 14.601776 	 1.6303581 	 0.94074774
-4.141411 	 14.696961 	 1.6396419 	 0.94042027
-4.0928955 	 14.85105 	 1.6541859 	 0.93990815
-4.0739284 	 14.949742 	 1.6638709 	 0.93956727
-3.9957788 	 15.356385 	 1.7039057 	 0.93815905
-3.9756567 	 15.461114 	 1.7142512 	 0.93779546
-3.9552832 	 15.56713 	 1.7247404 	 0.93742704
-3.9346557 	 15.674464 	 1.735373 	 0.9370537
-3.9137793 	 15.783112 	 1.74615 	 0.9366754
-3.871228 	 16.004524 	 1.768155 	 0.9359035
-3.8275878 	 16.231615 	 1.7907844 	 0.9351104
-3.8053465 	 16.34734 	 1.8023393 	 0.9347057
-3.7599902 	 16.58336 	 1.8259495 	 0.93387926
-3.7368603 	 16.703697 	 1.8380095 	 0.9334574
-3.7134275 	 16.825645 	 1.8502492 	 0.93302953
-3.6896825 	 16.94923 	 1.8626634 	 0.93259555
-3.6164844 	 17.330137 	 1.9010279 	 0.9312561
-3.5659764 	 17.59293 	 1.9275815 	 0.93033034
-3.5401952 	 17.72709 	 1.9411433 	 0.92985725
-3.4871385 	 17.999214 	 1.968726 	 0.9288972
-3.460122 	 18.138628 	 1.98288 	 0.92840475
-3.3766992 	 18.569166 	 2.0266917 	 0.9268822
-3.3480566 	 18.716953 	 2.041763 	 0.926359
-3.3189893 	 18.866938 	 2.057074 	 0.92582774
-3.2894871 	 19.019205 	 2.0726383 	 0.9252881
-3.2595263 	 19.17379 	 2.088454 	 0.9247399
-3.1982129 	 19.49015 	 2.1208756 	 0.92361736
-3.1668358 	 19.652056 	 2.1374948 	 0.9230424
-3.1025927 	 19.98358 	 2.1715815 	 0.9218645
-3.0362694 	 20.325855 	 2.2068427 	 0.92064744
-3.0022948 	 20.501196 	 2.2249403 	 0.9200236
-2.9329588 	 20.862993 	 2.2623343 	 0.91873544
-2.8239696 	 21.425419 	 2.3205957 	 0.91673225
-2.7092235 	 22.017591 	 2.382117 	 0.9146217
-2.6696045 	 22.22206 	 2.403397 	 0.91389275
-2.5882177 	 22.642084 	 2.447177 	 0.91239506
-2.5463915 	 22.85792 	 2.4697044 	 0.9116254
-2.5037842 	 23.077759 	 2.492673 	 0.91084135
-2.4603858 	 23.301727 	 2.516091 	 0.9100426
-2.416167 	 23.52992 	 2.5399446 	 0.9092288
-2.327041 	 24.019096 	 2.5912895 	 0.9074823
-2.2803028 	 24.262455 	 2.6168256 	 0.90661454
-2.1839843 	 24.76395 	 2.6695201 	 0.9048266
-1.9253222 	 26.110796 	 2.8114378 	 0.9000285
-1.8139746 	 26.690521 	 2.8726323 	 0.8979656
-1.758452 	 27.020609 	 2.9076555 	 0.89678985
-1.6995312 	 27.326298 	 2.9400158 	 0.8957034
-1.6392969 	 27.638807 	 2.9731195 	 0.8945932
-1.5776855 	 27.95848 	 3.0070086 	 0.8934581
-1.3164892 	 29.313627 	 3.1509209 	 0.8886539
10.741709 	 26.218544 	 3.042517 	 0.89227027
10.823266 	 26.202812 	 3.0442858 	 0.89221114
10.783008 	 25.480839 	 2.9710913 	 0.89466107
10.865048 	 25.470634 	 2.9735284 	 0.8945794
11.111884 	 25.439638 	 2.9809759 	 0.89432985
10.691655 	 24.28711 	 2.849514 	 0.8987455
11.148857 	 24.745268 	 2.91443 	 0.8965623
11.813051 	 26.019638 	 3.068507 	 0.89140195
11.558744 	 25.266455 	 2.9835832 	 0.8942424
11.664136 	 25.304443 	 2.9920135 	 0.89396006
11.770131 	 25.342655 	 3.0005176 	 0.8936753
11.916631 	 24.905043 	 2.9647205 	 0.89487463
12.101699 	 25.10637 	 2.992813 	 0.89393336
12.67478 	 24.472412 	 2.9594316 	 0.895052
12.7282715 	 24.4038 	 2.955539 	 0.89518243
12.870581 	 24.000082 	 2.9243639 	 0.8962287
12.873296 	 23.840479 	 2.909409 	 0.8967309
12.875811 	 23.682148 	 2.8945904 	 0.89722896
13.291005 	 24.279388 	 2.9722435 	 0.8946225
7.6752267 	 7.290946 	 1.1367582 	 0.958306
7.7582517 	 7.2436657 	 1.1397853 	 0.95819795
8.854715 	 -21.971653 	 2.543742 	 0.9091002
8.390127 	 -21.900078 	 2.5183394 	 0.9099658
8.3302765 	 -21.932217 	 2.519274 	 0.9099339
8.270384 	 -21.964382 	 2.5202298 	 0.9099014
8.210453 	 -21.996567 	 2.5212085 	 0.90986806
8.0289 	 -22.089355 	 2.523819 	 0.9097791
7.9626822 	 -22.104723 	 2.5229485 	 0.90980864
7.896511 	 -22.120083 	 2.5221052 	 0.9098375
7.830392 	 -22.135424 	 2.5212812 	 0.9098656
7.6982408 	 -22.166094 	 2.5196912 	 0.9099197
7.632248 	 -22.18141 	 2.5189354 	 0.9099456
7.5662785 	 -22.19672 	 2.5181947 	 0.9099708
7.500341 	 -22.212023 	 2.5174735 	 0.9099954
7.434459 	 -22.227314 	 2.5167758 	 0.9100191
7.300935 	 -22.25225 	 2.5148082 	 0.9100862
7.2293506 	 -22.249584 	 2.5121515 	 0.9101768
7.0866013 	 -22.244274 	 2.5069122 	 0.91035545
6.9444456 	 -22.238987 	 2.5017786 	 0.9105305
6.80287 	 -22.23372 	 2.4967504 	 0.91070217
6.5915647 	 -22.225859 	 2.4893959 	 0.91095304
6.5203114 	 -22.701416 	 2.5362763 	 0.9093546
6.4983764 	 -22.872396 	 2.5532792 	 0.90877545
6.476138 	 -23.045736 	 2.5705457 	 0.90818787
6.4535966 	 -23.221445 	 2.588062 	 0.90759194
6.430753 	 -23.399527 	 2.6058428 	 0.9069876
6.407585 	 -23.580109 	 2.623892 	 0.9063745
6.360283 	 -23.948856 	 2.660816 	 0.9051216
6.336127 	 -24.137154 	 2.6797009 	 0.90448135
6.3116245 	 -24.328156 	 2.6988842 	 0.9038316
6.2359667 	 -24.917929 	 2.7582483 	 0.9018237
6.2100043 	 -25.120296 	 2.7786608 	 0.9011342
6.1836524 	 -25.325731 	 2.7994068 	 0.900434
5.4799967 	 -25.98011 	 2.8511713 	 0.8986895
5.3982315 	 -25.961464 	 2.8474157 	 0.8988161
5.154192 	 -25.905813 	 2.8363342 	 0.8991893
5.0732617 	 -25.887348 	 2.8327 	 0.89931154
4.9925337 	 -25.86893 	 2.8291094 	 0.8994327
4.831698 	 -25.832235 	 2.8220148 	 0.89967185
4.6716766 	 -25.795732 	 2.8150463 	 0.89990664
4.5919375 	 -25.77754 	 2.8116112 	 0.90002257
4.4330783 	 -25.7413 	 2.8048346 	 0.90025103
4.117606 	 -25.669338 	 2.7916534 	 0.90069574
3.9609709 	 -25.63361 	 2.7852466 	 0.9009119
3.8050323 	 -25.598042 	 2.7789617 	 0.9011241
3.7273352 	 -25.580318 	 2.7758684 	 0.90122867
3.2646966 	 -25.474804 	 2.7578998 	 0.9018355
3.1881592 	 -25.45735 	 2.7550066 	 0.9019332
3.111787 	 -25.439934 	 2.752141 	 0.90203
2.883613 	 -25.3879 	 2.7437255 	 0.90231454
2.8078587 	 -25.370625 	 2.7409754 	 0.90240747
2.7322588 	 -25.353386 	 2.7382507 	 0.9024995
2.58151 	 -25.319014 	 2.732896 	 0.90268075
2.5256782 	 -25.49686 	 2.7512958 	 0.9020586
2.4845679 	 -25.838362 	 2.787357 	 0.90084046
2.399062 	 -26.548786 	 2.8624687 	 0.8983093
2.354497 	 -26.918207 	 2.9015574 	 0.8969947
2.3087206 	 -27.297909 	 2.9417632 	 0.8956447
1.433613 	 -18.194801 	 1.9598433 	 0.9292063
1.3801309 	 -18.182905 	 1.9581269 	 0.9292661
1.3267574 	 -18.171036 	 1.9564292 	 0.92932516
1.2734619 	 -18.159184 	 1.9547514 	 0.9293836
1.1671528 	 -18.135542 	 1.9514531 	 0.92949843
1.1141313 	 -18.12375 	 1.9498326 	 0.9295549
1.0611929 	 -18.111979 	 1.9482288 	 0.9296107
0.9555841 	 -18.088495 	 1.9450804 	 0.9297204
0.9029024 	 -18.07678 	 1.9435362 	 0.9297742
0.69302166 	 -18.030115 	 1.9375328 	 0.9299833
0.6407431 	 -18.018494 	 1.9360793 	 0.930034
0.48439223 	 -17.983734 	 1.9318233 	 0.9301823
0.32871428 	 -17.949127 	 1.9277275 	 0.9303249
0.17368469 	 -17.914667 	 1.9237956 	 0.930462
0.12213867 	 -17.903212 	 1.9225199 	 0.9305065
0.019274596 	 -17.880348 	 1.9200202 	 0.9305936
-0.032062378 	 -17.868938 	 1.9187987 	 0.9306363
-0.23678283 	 -17.823442 	 1.9140779 	 0.93080086
-0.2877974 	 -17.812107 	 1.912942 	 0.93084043
-0.3387637 	 -17.800781 	 1.9118233 	 0.93087953
-0.4405055 	 -17.778173 	 1.9096366 	 0.9309558
-0.5927072 	 -17.744358 	 1.9064811 	 0.93106586
-0.79487485 	 -17.69944 	 1.902512 	 0.9312043
-0.84528714 	 -17.688242 	 1.9015602 	 0.9312375
-0.8956445 	 -17.677055 	 1.9006273 	 0.93127006
-0.94595826 	 -17.665878 	 1.8997078 	 0.9313021
-0.9962304 	 -17.65471 	 1.8988075 	 0.93133354
-1.0464398 	 -17.643559 	 1.8979243 	 0.93136436
-1.0966198 	 -17.632412 	 1.8970557 	 0.93139464
-1.1467444 	 -17.621277 	 1.8962065 	 0.9314244
-1.3967239 	 -17.565758 	 1.8921937 	 0.93156433
-1.5041827 	 -17.634382 	 1.9004862 	 0.931275
-2.013432 	 -19.068783 	 2.059021 	 0.92576015
-2.093193 	 -19.293255 	 2.083897 	 0.9248977
-2.1748793 	 -19.523083 	 2.1093874 	 0.92401487
-3.7157092 	 -22.643791 	 2.4640467 	 0.9118186
-3.774339 	 -22.594717 	 2.4598792 	 0.9119611
-4.0068836 	 -22.400093 	 2.443539 	 0.91251945
-4.0645456 	 -22.351837 	 2.4395378 	 0.91265625
-4.122021 	 -22.303745 	 2.4355702 	 0.9127919
-4.1793027 	 -22.255816 	 2.4316363 	 0.9129264
-4.3500624 	 -22.11295 	 2.4200325 	 0.91332334
-4.4630175 	 -22.018457 	 2.412458 	 0.91358256
-4.5192175 	 -21.971445 	 2.408719 	 0.91371053
-4.5752587 	 -21.92457 	 2.4050133 	 0.9138375
-4.6311264 	 -21.877842 	 2.4013376 	 0.9139634
-4.7423463 	 -21.784828 	 2.3940778 	 0.914212
-4.907933 	 -21.646358 	 2.3834217 	 0.91457707
-4.9628186 	 -21.600468 	 2.3799262 	 0.91469675
-5.0175233 	 -21.554731 	 2.3764653 	 0.91481537
-5.0720778 	 -21.50912 	 2.3730335 	 0.914933
-5.12648 	 -21.463636 	 2.3696284 	 0.9150497
-5.234818 	 -21.373074 	 2.3629124 	 0.91528
-5.288762 	 -21.327984 	 2.3595972 	 0.9153937
-5.3961854 	 -21.238201 	 2.3530543 	 0.91561806
-5.4496813 	 -21.193491 	 2.3498263 	 0.91572887
-5.5030246 	 -21.14891 	 2.346625 	 0.91583866
-5.609292 	 -21.060112 	 2.3403096 	 0.9160554
-5.662215 	 -21.01589 	 2.3371952 	 0.9161623
-5.8724985 	 -20.84021 	 2.3250067 	 0.91658074
-5.9247413 	 -20.796566 	 2.3220258 	 0.9166831
-6.0288033 	 -20.709648 	 2.3161533 	 0.9168849
-6.1839404 	 -20.580082 	 2.307535 	 0.91718096
-6.2867417 	 -20.494238 	 2.3019211 	 0.91737384
-6.337944 	 -20.451485 	 2.2991557 	 0.91746897
-6.3890367 	 -20.408825 	 2.296411 	 0.9175632
-6.4908533 	 -20.32382 	 2.2910042 	 0.9177491
-6.5922008 	 -20.239218 	 2.2857006 	 0.91793156
-6.642687 	 -20.197075 	 2.283085 	 0.91802144
-6.693078 	 -20.155016 	 2.280493 	 0.91811055
-6.743352 	 -20.113056 	 2.2779274 	 0.91819876
-7.0299425 	 -20.195028 	 2.296209 	 0.9175702
-7.142029 	 -20.32877 	 2.313737 	 0.91696775
-7.2558594 	 -20.464588 	 2.3315601 	 0.9163557
-7.4888177 	 -20.742544 	 2.3680918 	 0.9151025
-7.6080737 	 -20.884829 	 2.3868186 	 0.9144606
-7.729198 	 -21.029348 	 2.4058652 	 0.9138084
-7.9773984 	 -21.325483 	 2.4449437 	 0.9124714
-8.104552 	 -21.477192 	 2.4649951 	 0.9117862
-8.498825 	 -21.947598 	 2.5272987 	 0.90966046
-8.634709 	 -22.109716 	 2.548809 	 0.9089276
-23.141972 	 1.6479455 	 2.4913187 	 0.91088754
-21.122595 	 1.6871935 	 2.275406 	 0.91828567
-20.034039 	 1.7741027 	 2.1597059 	 0.92227465
-19.713118 	 1.8027502 	 2.1256604 	 0.9234518
-19.403408 	 1.8306408 	 2.092821 	 0.9245885
-19.131817 	 1.860487 	 2.064096 	 0.9255841
-18.867676 	 1.8895153 	 2.0361764 	 0.9265528
-18.37377 	 1.9467297 	 1.9840498 	 0.92836404
-17.945295 	 2.0056286 	 1.9389937 	 0.9299324
-17.536947 	 2.062069 	 1.8961198 	 0.9314273
-17.364841 	 2.0924108 	 1.8781534 	 0.93205446
-17.030182 	 2.1514122 	 1.8432615 	 0.9332736
-16.707722 	 2.2082677 	 1.8097029 	 0.9344477
-16.564304 	 2.2377257 	 1.7948598 	 0.9349676
-16.299362 	 2.297362 	 1.7675517 	 0.9359246
-15.916748 	 2.3834827 	 1.7282252 	 0.9373046
-15.795781 	 2.4117737 	 1.7158341 	 0.93773973
-15.686982 	 2.4412901 	 1.7047678 	 0.93812853
-15.368772 	 2.5276036 	 1.6724946 	 0.93926364
-15.062395 	 2.610714 	 1.6415379 	 0.94035345
-14.968345 	 2.6387146 	 1.6321076 	 0.9406858
-14.87832 	 2.6669273 	 1.6231236 	 0.9410026
-14.7892475 	 2.6948376 	 1.6142436 	 0.94131565
-14.274704 	 2.8560753 	 1.5632197 	 0.9431167
-14.119856 	 2.909542 	 1.5480677 	 0.9436523
-14.043935 	 2.935985 	 1.5406638 	 0.9439141
-13.968772 	 2.9621668 	 1.5333439 	 0.9441729
-13.820522 	 3.0138 	 1.5189451 	 0.94468236
-13.747448 	 3.039259 	 1.5118693 	 0.9449329
-13.675058 	 3.0644689 	 1.5048683 	 0.9451807
-13.532227 	 3.11422 	 1.4910976 	 0.9456686
-13.397807 	 3.1644373 	 1.478263 	 0.94612336
-13.267065 	 3.2141223 	 1.4658504 	 0.9465634
-13.202488 	 3.2386632 	 1.4597361 	 0.9467802
-13.01198 	 3.311051 	 1.4417738 	 0.9474176
-12.949524 	 3.3347864 	 1.4359095 	 0.9476258
-12.826094 	 3.381688 	 1.4243541 	 0.94803613
-12.765132 	 3.4048548 	 1.4186622 	 0.94823825
-12.649773 	 3.452047 	 1.408025 	 0.9486163
-12.59342 	 3.4755626 	 1.4028568 	 0.94879997
-12.537488 	 3.4989026 	 1.3977381 	 0.9489819
-12.426806 	 3.545094 	 1.3876481 	 0.9493407
-12.317707 	 3.5906212 	 1.3777463 	 0.94969296
-12.26374 	 3.6131358 	 1.3728664 	 0.94986665
-12.05165 	 3.7016466 	 1.3537941 	 0.95054555
-11.999524 	 3.7233996 	 1.3491365 	 0.9507115
-11.949433 	 3.745509 	 1.3447077 	 0.9508692
-11.80489 	 3.8122277 	 1.3320875 	 0.95131886
-11.710019 	 3.8560169 	 1.3238599 	 0.9516121
-11.569882 	 3.920697 	 1.3117896 	 0.95204264
-11.523735 	 3.9419932 	 1.3078349 	 0.95218366
-11.297092 	 4.046598 	 1.2885774 	 0.9528709
-11.252561 	 4.067152 	 1.2848246 	 0.9530049
-11.21011 	 4.088258 	 1.2813151 	 0.95313025
-11.168886 	 4.109608 	 1.2779438 	 0.9532505
-11.127883 	 4.130841 	 1.2746061 	 0.9533698
-11.006113 	 4.1938953 	 1.2647505 	 0.9537219
-10.925969 	 4.235397 	 1.2583183 	 0.95395184
-10.886198 	 4.2559876 	 1.25514 	 0.9540654
-10.807258 	 4.2968664 	 1.24886 	 0.95428973
-10.768093 	 4.317145 	 1.2457649 	 0.9544005
-10.729104 	 4.33734 	 1.2426902 	 0.95451045
-10.690317 	 4.357423 	 1.2396474 	 0.9546194
-10.651729 	 4.3774033 	 1.2366194 	 0.95472753
-10.613305 	 4.3973007 	 1.2336174 	 0.9548348
-10.575086 	 4.417091 	 1.230648 	 0.95494115
-10.501511 	 4.457389 	 1.2250447 	 0.9551416
-10.430539 	 4.4981456 	 1.2197615 	 0.9553307
-10.360159 	 4.5385556 	 1.2145588 	 0.95551693
-10.3252 	 4.558634 	 1.211992 	 0.9556089
-10.2903805 	 4.5786266 	 1.2094419 	 0.9557001
-10.186799 	 4.638107 	 1.2019197 	 0.95596945
-10.050672 	 4.7162757 	 1.1921746 	 0.95631856
-9.98342 	 4.7548914 	 1.1874177 	 0.956489
-9.949997 	 4.7740808 	 1.1850697 	 0.9565732
-9.916714 	 4.7931967 	 1.1827384 	 0.9566567
-9.885432 	 4.8131604 	 1.1806517 	 0.9567315
-9.854311 	 4.833065 	 1.1785878 	 0.95680547
-9.792376 	 4.872679 	 1.17451 	 0.9569517
-9.76157 	 4.8923764 	 1.1724958 	 0.9570239
-9.730874 	 4.912008 	 1.1704981 	 0.9570955
-9.639395 	 4.970514 	 1.1646016 	 0.9573069
-9.609101 	 4.989891 	 1.162671 	 0.95737624
-9.518827 	 5.047628 	 1.156967 	 0.9575808
-9.429431 	 5.1048036 	 1.1514045 	 0.95778036
-9.399826 	 5.123739 	 1.1495811 	 0.95784575
-9.340881 	 5.1614366 	 1.1459813 	 0.95797503
-9.313154 	 5.1810803 	 1.1443993 	 0.9580318
-9.286042 	 5.2009826 	 1.1429002 	 0.9580856
-9.258999 	 5.220836 	 1.1414127 	 0.958139
-9.151546 	 5.2997227 	 1.1355989 	 0.95834774
-9.098215 	 5.338868 	 1.1327674 	 0.9584494
-9.018721 	 5.3972325 	 1.1286176 	 0.9585984
-8.966038 	 5.4359045 	 1.1259156 	 0.9586955
-8.913618 	 5.474391 	 1.1232637 	 0.9587907
-8.887492 	 5.493568 	 1.1219536 	 0.95883775
-8.83544 	 5.531786 	 1.1193751 	 0.9589304
-8.809497 	 5.5508313 	 1.1181037 	 0.95897603
-8.783613 	 5.5698304 	 1.1168455 	 0.9590213
-8.758591 	 5.589298 	 1.1157005 	 0.9590624
-8.710981 	 5.629598 	 1.1137373 	 0.95913297
-8.687239 	 5.6496935 	 1.112772 	 0.95916766
-8.639885 	 5.689781 	 1.1108763 	 0.95923585
-8.616264 	 5.709781 	 1.1099418 	 0.95926934
-8.545645 	 5.7695665 	 1.1072087 	 0.9593676
-8.522173 	 5.7894297 	 1.1063218 	 0.95939964
-8.49875 	 5.809259 	 1.1054374 	 0.95943123
-8.475361 	 5.8290563 	 1.1045676 	 0.95946246
-8.405413 	 5.888273 	 1.1020213 	 0.95955396
-8.335773 	 5.9472227 	 1.0995702 	 0.9596421
-8.312622 	 5.9668174 	 1.0987761 	 0.9596708
-8.266442 	 6.005914 	 1.0972193 	 0.9597269
-8.220381 	 6.0449085 	 1.0956929 	 0.95978165
-8.17575 	 6.0847645 	 1.0943828 	 0.9598287
-8.110815 	 6.1457434 	 1.0927391 	 0.9598878
-8.089213 	 6.166022 	 1.0922099 	 0.9599068
-8.046069 	 6.2065415 	 1.0911808 	 0.95994383
-8.024531 	 6.2267685 	 1.0906807 	 0.9599618
-7.981501 	 6.2671666 	 1.0897093 	 0.9599968
-7.9600196 	 6.287345 	 1.089236 	 0.96001375
-7.9171066 	 6.3276377 	 1.0883198 	 0.9600467
-7.746133 	 6.4881945 	 1.0850285 	 0.9601651
-7.703542 	 6.5281897 	 1.0843 	 0.96019137
-7.6397605 	 6.5880823 	 1.0832719 	 0.9602283
-7.5974708 	 6.628094 	 1.0826564 	 0.96025044
-7.577229 	 6.6488633 	 1.0824889 	 0.96025646
-7.5367746 	 6.690387 	 1.0821822 	 0.9602675
-7.51656 	 6.7111435 	 1.0820442 	 0.9602725
